ply
format ascii 1.0
element vertex 225
property float x
property float y
property float z
property uchar red
property uchar green
property uchar blue
end_header
8.56597 -4.3501 21.0632 255 255 255
 8.63861 -3.87992  20.9187 255 255 255
 9.07183 -3.35901  19.4948 255 255 255
-18.574 3.70102 51.3511 255 255 255
-3.58857 -1.19917  18.0584 255 255 255
-2.26701 -1.19591  17.9884 255 255 255
 -1.46527 -0.823269   18.5444 255 255 255
-18.4305  7.95419  48.3077 255 255 255
-20.037 8.20238 47.1188 255 255 255
-2.30527 0.203934  17.7804 255 255 255
 -2.2083 0.671706  17.8518 255 255 255
 8.6728 1.90152 19.8533 255 255 255
-7.51671  12.9828  43.2945 255 255 255
7.86115 5.12253 22.2573 255 255 255
 8.20671 -5.44663  22.3937 255 255 255
-18.348 2.76006 55.7505 255 255 255
-19.9219  7.13808  48.3197 255 255 255
-18.3659  8.36678  50.8234 255 255 255
-18.1074  7.90648  48.6776 255 255 255
0.332398 0.213001  21.0311 255 255 255
-0.0108332    0.29468    20.9832 255 255 255
-19.5768  9.19471  47.0413 255 255 255
 8.3458 3.30188 21.4755 255 255 255
-23.8717   18.368  55.8173 255 255 255
7.56586 5.08956 23.4022 255 255 255
7.13563 7.32885 24.0947 255 255 255
-4.97295  14.8566  36.9031 255 255 255
 8.3873 -4.5865  21.731 255 255 255
 8.75694 -4.63268  20.2987 255 255 255
-20.048 2.28604 51.6939 255 255 255
-18.7069  3.13406  55.0584 255 255 255
-19.5904  3.82053  51.6872 255 255 255
-21.8097  3.98406  51.7752 255 255 255
 2.34457 -1.34057   21.862 255 255 255
-18.9028  7.59448  48.4921 255 255 255
-0.905223  0.180726   20.0305 255 255 255
0.197251 0.579146  21.0383 255 255 255
  -3.3221 -0.277545   17.8697 255 255 255
4.18345  1.0312 18.9868 255 255 255
  -0.365884 0.000336574     20.5694 255 255 255
-18.1974  10.9411  45.4371 255 255 255
8.78591 2.55766 19.9591 255 255 255
8.47428 2.96642 20.7264 255 255 255
6.72043 7.03511 25.0573 255 255 255
8.17331 5.59579 21.1747 255 255 255
 -2.87347 -0.260751   17.8001 255 255 255
 1.86086 0.632499  20.7599 255 255 255
 8.82254 0.924889  20.4633 255 255 255
 8.8598 2.96005 19.2464 255 255 255
-20.1833  1.71484  51.1774 255 255 255
 8.2129 -5.7404 22.3686 255 255 255
8.37447 -5.0392 22.0049 255 255 255
 8.20832 -4.74915   22.198 255 255 255
-17.1658  9.73801  50.0373 255 255 255
 8.83393 -3.94191  20.7302 255 255 255
 8.71357 -3.59183  20.9353 255 255 255
 8.89602 -3.77861  20.4425 255 255 255
8.98385 -3.5358 20.2137 255 255 255
 8.97731 -3.23415  20.0341 255 255 255
 9.15332 -3.08597  19.5844 255 255 255
 9.20635 -2.94512   19.309 255 255 255
 -3.10018 -0.366533   17.8815 255 255 255
 -0.8864 0.501739  20.1116 255 255 255
 4.47423 -1.32088  18.5218 255 255 255
 8.7373   0.458 20.5024 255 255 255
7.51069 4.20256 22.3764 255 255 255
7.60567 4.61139 21.9764 255 255 255
6.72425 7.11131 23.6642 255 255 255
-8.13264  21.4433  36.1998 255 255 255
6.54427 16.3997 32.4481 255 255 255
-19.0509  2.59039  55.6712 255 255 255
-6.5964 2.74996 60.5058 255 255 255
-3.57851  8.60679   56.057 255 255 255
 8.65363 -4.17739  20.9178 255 255 255
 8.98127 -4.15259   20.248 255 255 255
 2.84833 -1.91182  21.6987 255 255 255
 8.78199 -3.51758  20.4644 255 255 255
0.912957 -1.22045  21.3853 255 255 255
 9.05365 -3.03085  19.7882 255 255 255
-0.0765255 -0.0980956    20.8576 255 255 255
7.91093 4.70105 22.2274 255 255 255
-8.18184   19.547  36.8827 255 255 255
6.52583 16.3982 31.4136 255 255 255
7.77765 10.8673 22.9634 255 255 255
-19.7837  3.25441  50.6497 255 255 255
-18.8293  7.99453  54.6167 255 255 255
 -4.0069 -2.79185  19.9931 255 255 255
0.307613 -1.62938  21.8155 255 255 255
 0.212939 -0.542431   21.0611 255 255 255
 -2.17531 -0.939577   18.3084 255 255 255
-2.89621 0.126596  17.7473 255 255 255
-14.5905  17.0886   43.686 255 255 255
  9.41387 -0.535331   17.9319 255 255 255
-6.20882  17.9444  36.5855 255 255 255
-6.56205  18.7669  36.5365 255 255 255
-6.91843  19.5314   36.443 255 255 255
-19.3722  2.95208  51.5793 255 255 255
5.48895 13.0849 32.1138 255 255 255
 7.97011 -5.60759  22.9554 255 255 255
 -0.818969 -0.0110576    20.8589 255 255 255
-17.7787  14.6058  36.6317 255 255 255
 7.13394 -6.64073  26.1027 255 255 255
-22.0677   9.9103  49.4955 255 255 255
-19.3711  10.3239  46.2818 255 255 255
0.0845745 -0.791154   21.0576 255 255 255
5.74082 9.91718 24.4323 255 255 255
 8.44475 -4.78432  21.6129 255 255 255
  8.17317 -0.476479   22.3282 255 255 255
 4.06455 -1.38379  19.5633 255 255 255
6.99258 1.49036 21.2263 255 255 255
 8.82418 -1.42321  22.2792 255 255 255
 8.25743 -5.48788  22.0031 255 255 255
 8.40441 -5.16817  21.2049 255 255 255
8.26706 -5.0715 21.3009 255 255 255
8.49067 -4.9889  21.487 255 255 255
8.78758 -4.3951 20.3962 255 255 255
 8.75986 -4.24275  20.5798 255 255 255
-4.49042 -2.86037   19.374 255 255 255
 8.80816 -3.82492  19.9124 255 255 255
9.12116 -3.1386 19.2106 255 255 255
 -2.1567 -1.91287  18.1897 255 255 255
 5.08194 -2.57728  19.4919 255 255 255
  -3.0704 -0.863548   17.8177 255 255 255
 -2.01085 -0.912627   18.1173 255 255 255
 -1.71181 -0.908248   18.2854 255 255 255
 -2.80121 -0.631307   17.9608 255 255 255
 -1.21521 -0.326706    20.496 255 255 255
-0.720739 -0.417184   21.0647 255 255 255
   4.2314 -0.621361   19.1306 255 255 255
-0.898703 -0.290287   20.8993 255 255 255
 -3.1964 0.221684  17.5676 255 255 255
  2.63586 -0.391546   20.9316 255 255 255
-3.07241 0.447889  17.5838 255 255 255
  2.65801 -0.247102   21.4612 255 255 255
 -3.6122 0.830235  17.6997 255 255 255
 0.54692 0.544542  21.0354 255 255 255
0.00655349    1.12975    21.1519 255 255 255
 8.56627 0.891649  20.8243 255 255 255
-18.5869    4.538  59.5223 255 255 255
-6.2418 7.06972 62.0919 255 255 255
8.35573  3.2101 21.3682 255 255 255
-4.91243  10.2996  44.7433 255 255 255
 8.28645 -6.10057  22.0311 255 255 255
 8.16618 -5.96603   22.196 255 255 255
 8.70717 -4.00288  20.0887 255 255 255
 8.46673 -4.16515  21.1504 255 255 255
-2.42291 -2.86097  19.6273 255 255 255
 9.09184 -3.70528  19.6649 255 255 255
 8.90564 -3.60456   19.705 255 255 255
 3.77246 -3.85203   23.885 255 255 255
 9.29969 -3.22066  19.0942 255 255 255
  3.2625 -3.43985  24.4608 255 255 255
 -2.74472 -0.939304   17.9577 255 255 255
 -3.06514 -0.682241   17.8687 255 255 255
-0.118383 -0.771803   21.2178 255 255 255
 7.63022 -1.28534  24.7158 255 255 255
0.463284 0.402631  21.1551 255 255 255
-2.64338 0.868863  17.6843 255 255 255
-2.87865 0.911615  17.6189 255 255 255
 2.43062 0.811428  19.9293 255 255 255
 6.17905 0.701198  21.7097 255 255 255
2.13059 1.56462 20.2296 255 255 255
8.76537 2.13743 19.8952 255 255 255
8.91056 2.81354 19.4487 255 255 255
-6.99246  8.83916  55.1532 255 255 255
-3.17157  9.17831  55.2524 255 255 255
-4.22327  9.65393  45.3473 255 255 255
7.49259 4.82011 23.4085 255 255 255
7.67482 5.43406 22.8372 255 255 255
-4.10055 -2.72618  19.4329 255 255 255
 -4.3095 -2.60649  19.0933 255 255 255
 8.81164 -3.80377  20.4246 255 255 255
 2.75358 -3.90603  23.7022 255 255 255
 8.88536 -3.33048  19.6862 255 255 255
 9.12013 -2.88627  19.2635 255 255 255
 -3.46311 -0.741263   17.9439 255 255 255
-0.711404 -0.064443   20.7407 255 255 255
0.304679 0.218557  20.8359 255 255 255
-0.686465  0.540175   20.6739 255 255 255
2.30008 1.38713 20.4963 255 255 255
-21.6137  6.72836  49.8614 255 255 255
 6.7494 2.81684 22.0934 255 255 255
 3.02164 -2.14598  22.1125 255 255 255
 2.81742 -1.73642  22.0592 255 255 255
-2.40362 -0.42115  17.3712 255 255 255
 6.56285 -7.18474  26.1454 255 255 255
3.05476 -4.2826 23.7174 255 255 255
 3.38889 -3.86556  24.2071 255 255 255
 5.14269 -1.83403  18.9079 255 255 255
-0.00800231   -0.107624     21.0655 255 255 255
-2.01124 0.771432  18.0976 255 255 255
-0.070054   1.93498   20.1131 255 255 255
2.13367 2.03065 20.7462 255 255 255
 7.09398 0.194963  22.9051 255 255 255
7.54462  4.6738 22.8591 255 255 255
 4.20596 -4.29196  24.1556 255 255 255
 5.78179 -1.49334  21.2353 255 255 255
-0.26769 0.764987  20.8635 255 255 255
8.46885 3.06954 20.3563 255 255 255
-17.9332  10.0748  46.5683 255 255 255
8.06495 3.89604 22.0726 255 255 255
  8.06223 -0.496624   22.1138 255 255 255
-10.3282  3.84008   60.862 255 255 255
-5.42298  6.99531  62.0221 255 255 255
 8.58344 -4.45405  21.7352 255 255 255
-5.33222  9.69018   45.099 255 255 255
-3.21677 0.210137  17.6961 255 255 255
-9.83314  4.27313  60.8471 255 255 255
-6.48814  4.10638  61.7293 255 255 255
  8.2135 -5.25204  22.0806 255 255 255
1.60522 1.78925 20.3075 255 255 255
-3.87079  16.4107   36.554 255 255 255
 8.88992 -3.58211  20.1765 255 255 255
 2.31825 -1.71674  21.7455 255 255 255
-11.0979  3.27453  61.7461 255 255 255
-4.24398 -2.73352  19.5863 255 255 255
8.00799 3.79653 21.9353 255 255 255
-4.85438  15.3139  36.8428 255 255 255
 6.35971 -8.05577  26.4299 255 255 255
 7.19614 -6.91115    25.42 255 255 255
    0.428454   -0.0310707 -0.000302863 0 255 0
 0.92836 -6.33375 -1.27655 0 255 0
0.145567 -10.7453 -1.07949 0 255 0
 1.23633  1.06311 -0.00817 0 255 0
-7.11561 -3.87058  2.29259 0 255 0
