ply
format ascii 1.0
element vertex 149
property float x
property float y
property float z
property uchar red
property uchar green
property uchar blue
end_header
5.22919  -4.476 20.9201 255 255 255
  5.6043 -4.11395  21.3833 255 255 255
 6.21676 -3.55808  20.0462 255 255 255
-5.92854 -1.70565  17.4295 255 255 255
-4.69608 -1.67017  17.4911 255 255 255
-4.00318 -1.30384  18.0852 255 255 255
 -4.75126 -0.330369   17.3019 255 255 255
-4.67235 0.107186  17.3631 255 255 255
 5.5711 1.62003 20.2806 255 255 255
-15.3711    14.07  49.7949 255 255 255
4.34897 4.72965 22.7981 255 255 255
 4.99755 -5.66636  22.6369 255 255 255
 -2.58896 -0.319256   20.6106 255 255 255
 -2.91014 -0.258343   20.4975 255 255 255
4.99842 2.96704 21.9975 255 255 255
3.89031 4.62604  23.774 255 255 255
3.18696 6.62205 24.3191 255 255 255
-11.3869  15.8201  41.4252 255 255 255
 5.24923 -4.81725   22.056 255 255 255
 5.81651 -4.83509  20.7402 255 255 255
-0.742328  -1.75051   21.5336 255 255 255
 -3.65721 -0.368264   19.5293 255 255 255
 -2.72826 0.0147389   20.5735 255 255 255
 -5.69094 -0.821202    17.284 255 255 255
 1.26966 0.632695   19.145 255 255 255
 -3.19381 -0.536445   20.0786 255 255 255
5.69401 2.30564 20.6464 255 255 255
5.02295 2.50562 20.9659 255 255 255
2.69423 6.30842  25.226 255 255 255
4.77375 5.22683  21.699 255 255 255
 -5.28456 -0.786271   17.2958 255 255 255
-1.10617 0.107024  20.3421 255 255 255
5.59263 2.58604 19.6734 255 255 255
 -5.44959 -0.798108   17.7581 255 255 255
5.37704  0.1046 20.6678 255 255 255
-12.2311  6.89044  61.3363 255 255 255
 5.33032 -4.30688  20.8117 255 255 255
-0.221234  -2.37025   21.1181 255 255 255
 5.51301 -3.67065  20.4774 255 255 255
4.24042 4.11307 22.4057 255 255 255
 -5.34562 -0.419833   17.3463 255 255 255
-13.0864  19.7984  42.2303 255 255 255
-13.5856  20.8884  42.4981 255 255 255
-14.0722  21.9014   42.671 255 255 255
 5.01852 -5.59064  21.8748 255 255 255
 5.33836 -5.36413  21.4939 255 255 255
 5.18475 -5.27054  21.5633 255 255 255
 5.28164 -5.07258  21.3395 255 255 255
 5.82845 -4.60215  20.8446 255 255 255
 5.77478 -4.45806  21.0316 255 255 255
-6.89044  -3.3424  18.6196 255 255 255
 5.91749 -4.04291  20.4534 255 255 255
6.32945 -3.3515 19.8757 255 255 255
-4.57695 -2.34519  17.6168 255 255 255
 2.19783 -2.83741  19.5779 255 255 255
-5.42075 -1.36467  17.2173 255 255 255
-4.47921 -1.39628  17.6403 255 255 255
-4.21594 -1.38835  17.8342 255 255 255
-5.20163 -1.14155  17.3931 255 255 255
 -3.97749 -0.866625   19.8582 255 255 255
 -3.55819 -0.947605   20.3933 255 255 255
  1.34129 -0.943092   19.1043 255 255 255
 -3.71545 -0.830522   20.2368 255 255 255
 -5.56189 -0.337229   17.0411 255 255 255
-0.381383 -0.804728   20.4643 255 255 255
  -5.4604 -0.119271   17.0814 255 255 255
-0.425218 -0.680617     20.91 255 255 255
-5.97849 0.221841  17.1404 255 255 255
   -2.37124 -0.00106001     20.4136 255 255 255
-2.91836  0.52688     20.5 255 255 255
 5.39312 0.614753  21.3622 255 255 255
-16.3634  5.06501  70.3514 255 255 255
5.03588 2.88426 21.9273 255 255 255
-12.0952  9.61928  49.8472 255 255 255
  5.0256 -6.13333   21.742 255 255 255
 4.96519 -6.12869  22.2825 255 255 255
   5.791 -4.22001  20.5897 255 255 255
 5.39051 -4.38905  21.4757 255 255 255
-4.90258 -3.24262  18.7354 255 255 255
6.24183 -3.9194 20.2687 255 255 255
 6.04291 -3.82156   20.283 255 255 255
0.429132 -4.12581  23.3276 255 255 255
 6.53379 -3.43009  19.7871 255 255 255
-0.127863  -3.73672   23.7418 255 255 255
-5.04547 -1.39681  17.0978 255 255 255
-5.42998   -1.195  17.2754 255 255 255
-2.99039 -1.26359    20.57 255 255 255
 3.93398 -1.62602  24.5819 255 255 255
 -2.45837 -0.139372   20.5133 255 255 255
-5.09307 0.293041  17.2382 255 255 255
-5.30489 0.327234  17.1537 255 255 255
-0.496552   0.33647    19.614 255 255 255
 2.86537 0.309393  21.8387 255 255 255
-0.840197   1.02676   19.9007 255 255 255
5.68374 1.88691 20.5178 255 255 255
5.91394 2.60237 20.2973 255 255 255
-15.9141  7.14076  61.0232 255 255 255
-11.6515  7.50207  60.1065 255 255 255
-11.0924  8.13873  47.8502 255 255 255
3.69562 4.17846 23.4914 255 255 255
4.05729 4.98258 23.2254 255 255 255
-6.43847 -3.15461  18.4734 255 255 255
-6.65139 -3.06776  18.2713 255 255 255
 5.84477 -4.02706   20.926 255 255 255
-0.506453  -4.20413   23.1018 255 255 255
 6.02133 -3.55152  20.2802 255 255 255
 6.31548 -3.10136  19.9375 255 255 255
-5.79502 -1.26111   17.292 255 255 255
 -3.52506 -0.607193   20.1045 255 255 255
 -2.57068 -0.308962   20.2355 255 255 255
  -3.51241 -0.0351318    20.0468 255 255 255
-0.704731  0.856413   20.1334 255 255 255
3.35666 2.40038 22.5757 255 255 255
-0.112135  -2.47271   21.6062 255 255 255
-0.306406  -2.08591   21.5107 255 255 255
 -4.79041 -0.922063   16.9389 255 255 255
 2.89943 -7.38316  25.8187 255 255 255
-0.215667    -4.563   23.1482 255 255 255
0.0306967  -4.14885   23.5763 255 255 255
 2.30528 -2.09935  19.0492 255 255 255
 -2.88334 -0.630952   20.4243 255 255 255
-4.53792  0.21043  17.6731 255 255 255
-2.92425  1.31732  19.6366 255 255 255
-0.916072   1.45221    20.397 255 255 255
  3.62297 -0.181057   23.0319 255 255 255
3.96504 4.22808 23.2543 255 255 255
0.818896 -4.54764   23.616 255 255 255
 2.59913 -1.79018  21.1832 255 255 255
-3.13714 0.184478   20.232 255 255 255
5.28717 2.78327  20.939 255 255 255
 4.6205 3.52087 22.5664 255 255 255
 4.74534 -0.80913  22.4864 255 255 255
-15.3927  4.99372  70.0279 255 255 255
-12.2368  8.17889  47.7722 255 255 255
 -5.57231 -0.208776    17.643 255 255 255
  4.7591 -5.35273  21.7005 255 255 255
-1.35787   1.2248  19.9701 255 255 255
-10.1619  17.3871   40.832 255 255 255
 5.65992 -3.71609  20.2414 255 255 255
-0.726172  -2.19771   21.1711 255 255 255
-6.63805 -3.17543   19.279 255 255 255
4.39831  3.2454 22.0806 255 255 255
-11.2661  16.3197  41.3522 255 255 255
 2.69808 -8.21635  26.0684 255 255 255
 3.55753 -7.05756  25.1194 255 255 255
0 0 0 0 255 0
 0.92836 -6.33375 -1.27655 0 255 0
 0.79989  1.18373 0.168244 0 255 0
-7.05239 -3.59208  2.07066 0 255 0
