ply
format ascii 1.0
element vertex 111
property float x
property float y
property float z
property uchar red
property uchar green
property uchar blue
end_header
 6.59644 -6.95226  19.6384 255 255 255
 7.08893 -5.82175  17.3808 255 255 255
-6.53587 -2.62964   11.938 255 255 255
-5.24818 -2.57382  12.0767 255 255 255
-4.78308 -2.34376  13.2385 255 255 255
 -5.3391 -1.23546  12.1049 255 255 255
  -5.2834 -0.801231   12.2434 255 255 255
  6.3424 0.727888  18.4818 255 255 255
6.21621 6.07761 27.9727 255 255 255
 5.99587 -9.47314  21.5321 255 255 255
-4.02324 -1.69023  18.8719 255 255 255
-4.01135 -1.46876  16.6849 255 255 255
6.21861 2.63424 22.7436 255 255 255
5.73021 6.17964  31.303 255 255 255
 6.29255 -8.18678  20.8787 255 255 255
 6.68152 -7.62012  18.2392 255 255 255
 -1.6987 -3.46844  19.0112 255 255 255
-4.81061 -1.54909  15.6305 255 255 255
-3.73598 -1.13714  16.5341 255 255 255
-6.19704 -1.69917   11.743 255 255 255
 0.727986 -0.346604   14.7152 255 255 255
-4.36995 -1.79576  16.4633 255 255 255
6.66297 1.63433 19.3243 255 255 255
6.56413 6.59039 24.5964 255 255 255
-5.91316 -1.70714  12.0598 255 255 255
-1.85388 -0.97907  16.0591 255 255 255
-5.98049 -1.33635  12.1065 255 255 255
 6.00608 -9.28671  20.6563 255 255 255
 6.33503 -8.76767  19.8628 255 255 255
 6.12941 -8.65366  19.9906 255 255 255
 6.18435 -8.25548  19.5205 255 255 255
  6.8222 -7.46251  18.7059 255 255 255
 6.76522 -7.31431  18.9993 255 255 255
-9.18645 -5.31158  15.0777 255 255 255
   6.745 -6.50462  17.8675 255 255 255
 7.09566 -5.43497  16.8909 255 255 255
-5.23894 -3.32825  12.3722 255 255 255
 1.78231 -4.27428  15.5801 255 255 255
-6.01066 -2.27405  11.8608 255 255 255
-5.13852 -2.35827  12.4936 255 255 255
-4.91132 -2.37741  12.7825 255 255 255
-5.83585 -2.07269  12.1282 255 255 255
-5.21543 -2.14197   15.917 255 255 255
-4.87242 -2.31726  16.8486 255 255 255
0.800277 -1.97824  14.5145 255 255 255
-5.00767   -2.154  16.5536 255 255 255
-6.11781  -1.2219  11.7021 255 255 255
 -1.1098 -2.04606  16.6786 255 255 255
-6.02492 -1.00639  11.7731 255 255 255
-1.20076 -1.97602  17.4489 255 255 255
 -6.62242 -0.674019   11.8692 255 255 255
-3.36723 -1.16301  16.6267 255 255 255
 -4.01138 -0.579711   16.7376 255 255 255
  6.68914 -0.750901   22.2948 255 255 255
  6.266 2.51709 22.6706 255 255 255
   5.989 -9.97189  20.2953 255 255 255
 6.09188 -10.3584  21.5922 255 255 255
 6.61742 -6.77906  18.0939 255 255 255
 6.40559 -7.48185  20.1138 255 255 255
-5.95889 -4.57355  13.8915 255 255 255
 7.13798 -6.31137   17.596 255 255 255
6.85151 -6.1572 17.5672 255 255 255
-0.411418  -7.64984   23.7861 255 255 255
 7.34973 -5.52613  16.7684 255 255 255
-1.25421 -7.26873  24.8249 255 255 255
-5.57402  -2.2786  11.7188 255 255 255
-6.04255 -2.11309  11.9542 255 255 255
-4.24688 -2.71307  17.1944 255 255 255
 4.70666 -4.24665  26.2902 255 255 255
-3.49782  -1.3361  16.8187 255 255 255
 -5.67564 -0.601155   12.0042 255 255 255
 -5.88334 -0.562063   11.8937 255 255 255
 -1.13492 -0.676415   15.1301 255 255 255
  2.62005 -0.939966   19.0649 255 255 255
 -1.52071 0.0323318    15.511 255 255 255
6.63225 1.08067 19.1534 255 255 255
6.97321 2.04928 18.8653 255 255 255
5.97798 6.79791  29.985 255 255 255
-7.87974 -4.62032  13.8562 255 255 255
-8.24103 -4.58773  13.8397 255 255 255
 6.80973 -6.68775  18.8171 255 255 255
 -1.7353 -7.68693  23.2796 255 255 255
 6.81055 -5.80385  17.5739 255 255 255
 7.09294 -5.14042  17.0227 255 255 255
-6.44881 -2.19305  11.9671 255 255 255
-4.72313  -1.8635  16.2997 255 255 255
-3.57864 -1.49865  16.3744 255 255 255
-4.64647 -1.19046  16.1037 255 255 255
 -1.40148 -0.161753   15.8936 255 255 255
3.46192 1.62306 21.5538 255 255 255
-0.947425   -4.4132   19.2242 255 255 255
-1.16439 -3.86719  18.9178 255 255 255
-5.26242  -1.7786   11.564 255 255 255
-1.33735  -8.2849  23.4783 255 255 255
-1.01571 -7.85524   24.506 255 255 255
 1.84153 -3.27266  14.6358 255 255 255
-4.02416 -1.91546  16.7967 255 255 255
 -5.18256 -0.713112   12.5744 255 255 255
-3.8033 0.34552 15.2943 255 255 255
 -1.6532 0.466068  16.2519 255 255 255
 3.79817 -1.74969  21.8649 255 255 255
5.31928  4.9732  27.676 255 255 255
0.137365  -8.5343  24.7206 255 255 255
  2.3175 -3.39079  18.1699 255 255 255
 -4.22946 -0.950243   16.3587 255 255 255
6.29885 2.30798 20.2878 255 255 255
6.00931 3.60936 24.9722 255 255 255
 5.33615 -2.57556  21.3099 255 255 255
0 0 0 0 255 0
  1.12339  -2.87255 -0.795033 0 255 0
0.433721 0.610247 0.201794 0 255 0
