ply
format ascii 1.0
element vertex 225
property float x
property float y
property float z
property uchar red
property uchar green
property uchar blue
end_header
 8.70229 -5.04811  21.4512 255 255 255
 8.77674 -4.56697  21.3194 255 255 255
 9.24043 -4.00699  19.9682 255 255 255
-19.9721  2.63056   56.381 255 255 255
-3.45098 -1.78271  18.6218 255 255 255
-2.13817 -1.77603  18.5857 255 255 255
-1.32725 -1.41879  19.1155 255 255 255
-18.8495  6.69658  50.6867 255 255 255
-20.7373  7.06865  49.7468 255 255 255
 -2.17582 -0.365846   18.3966 255 255 255
  -2.0822 0.0996529   18.4977 255 255 255
 8.8521 1.25534 20.4486 255 255 255
 -7.159 11.4647 44.4784 255 255 255
8.06268 4.40686 23.0192 255 255 255
 8.32695 -6.16777  22.7233 255 255 255
-20.1982  1.67833  62.7415 255 255 255
-20.7926  6.03232  51.4457 255 255 255
-18.755 7.05175 53.3623 255 255 255
-18.478 6.62389 51.0228 255 255 255
  0.49376 -0.478604   21.5434 255 255 255
 0.136949 -0.394792   21.5453 255 255 255
-20.0376   7.9743  49.2402 255 255 255
8.53137 2.60066 22.1553 255 255 255
-24.1234  16.8204  57.7356 255 255 255
7.74805 4.31788 24.1535 255 255 255
7.34326 6.55578 24.9509 255 255 255
-4.7119  13.677 38.2921 255 255 255
 8.51333 -5.29102  22.0906 255 255 255
 8.91822 -5.31342  20.7603 255 255 255
-22.3212  1.28302  58.3955 255 255 255
-20.5105  2.07008  61.6723 255 255 255
-21.2673  2.80143  57.1475 255 255 255
-24.1504  3.07864  58.0422 255 255 255
 2.48072 -2.04986  22.3487 255 255 255
-19.4747  6.39075  51.1621 255 255 255
-0.755213 -0.472827   20.5932 255 255 255
 0.344132 -0.113597   21.6093 255 255 255
 -3.19031 -0.854051   18.4675 255 255 255
4.32065  0.4205 19.6123 255 255 255
-0.218619 -0.672201   21.1321 255 255 255
-18.2556  9.56728  46.8432 255 255 255
8.97784 1.91254 20.5702 255 255 255
8.65673 2.28955 21.3691 255 255 255
6.91602 6.21435 25.8711 255 255 255
8.40186 4.94418 21.9685 255 255 255
-2.74941 -0.83404   18.416 255 255 255
   1.99586 -0.0440088      21.31 255 255 255
 9.04089 0.264984  20.9913 255 255 255
9.06127 2.33346 19.8804 255 255 255
-22.6408 0.698836  58.1506 255 255 255
 8.35062 -6.57954  22.3471 255 255 255
 8.5078 -5.8608 22.0253 255 255 255
 8.34066 -5.56974  22.2458 255 255 255
-17.1687  8.24454   51.702 255 255 255
 8.96382 -4.71915  20.8127 255 255 255
 8.84482 -4.36846  21.0516 255 255 255
 9.02646 -4.54576  20.5368 255 255 255
 9.12134 -4.29214  20.3363 255 255 255
 9.11809 -3.97965  20.1857 255 255 255
 9.30575 -3.81425  19.7604 255 255 255
9.36357 -3.6617 19.5011 255 255 255
 -2.97659 -0.944018    18.496 255 255 255
 -0.73457 -0.166394   20.6634 255 255 255
 4.56743 -1.91911  19.0108 255 255 255
  8.88598 -0.223788   21.0276 255 255 255
7.84089  3.7235 23.5219 255 255 255
7.98874 4.22988 23.2573 255 255 255
7.15765 6.89513 25.3414 255 255 255
-8.4377 22.1473 39.6769 255 255 255
7.32278 17.1787 36.0258 255 255 255
-21.174 1.54134 63.1151 255 255 255
-6.53288  1.21559  64.7028 255 255 255
-3.17666  6.15232  54.6097 255 255 255
 8.78144 -4.85618  21.2638 255 255 255
  9.1062 -4.92067  20.3024 255 255 255
 3.00044 -2.61136  22.2701 255 255 255
 8.92452 -4.19783  20.8689 255 255 255
1.04507 -1.9427 21.7307 255 255 255
  9.2035 -3.76387  19.9685 255 255 255
0.0720264 -0.802588   21.3182 255 255 255
8.10611 3.98426  22.962 255 255 255
-8.24385  19.3513  39.3788 255 255 255
7.37995 17.5027 35.2809 255 255 255
8.81647 12.0574 26.1725 255 255 255
-21.6114  2.24927  56.2331 255 255 255
-19.4508  6.70447  58.0173 255 255 255
-3.81026    -3.48  20.2757 255 255 255
0.453595 -2.36554  22.1158 255 255 255
0.357502 -1.25518  21.4745 255 255 255
-2.01811 -1.55273   18.785 255 255 255
 -2.76946 -0.444942   18.3858 255 255 255
-14.298 15.5611 44.5826 255 255 255
 9.73087 -1.07659  18.5315 255 255 255
-6.02554  17.0181  38.3993 255 255 255
-6.40179  17.9135  38.4559 255 255 255
-6.77498  18.7276  38.4164 255 255 255
-21.2203  1.92841  57.4947 255 255 255
5.91089 12.7067 34.1773 255 255 255
 8.11949 -6.45775  22.9791 255 255 255
-0.657988  -0.71955   21.3192 255 255 255
-18.073 13.7435 38.0035 255 255 255
  7.3917 -7.59448  26.3954 255 255 255
-23.0102  8.83268  52.5112 255 255 255
-19.6688  9.05009  48.1135 255 255 255
0.229862 -1.50428  21.4476 255 255 255
6.28791 10.2103 26.8302 255 255 255
  8.5732 -5.59217  21.6435 255 255 255
 8.32269 -1.24221  22.7233 255 255 255
 4.15273 -2.02991  19.9891 255 255 255
 7.18717 0.861712  21.9551 255 255 255
 8.99164 -2.20484  22.6044 255 255 255
 8.37321 -6.19266  22.3219 255 255 255
 8.50347 -5.82955   21.479 255 255 255
 8.36347 -5.73406  21.5709 255 255 255
 8.61178 -5.68207  21.8269 255 255 255
 8.93733 -5.06812  20.8131 255 255 255
 8.88558 -4.90633  20.9419 255 255 255
-4.32031 -3.48157  19.8246 255 255 255
 8.95673 -4.47857  20.3351 255 255 255
 9.29724 -3.77925  19.7013 255 255 255
-2.01751 -2.49685  18.7425 255 255 255
 5.20386 -3.19483  19.9581 255 255 255
-2.94297  -1.4411  18.4322 255 255 255
-1.87769 -1.49676  18.7177 255 255 255
-1.57665 -1.49716  18.8786 255 255 255
-2.67108 -1.21125   18.571 255 255 255
 -1.05769 -0.989858   20.9689 255 255 255
-0.562403  -1.09776   21.4958 255 255 255
4.36263 -1.2355  19.696 255 255 255
-0.740062 -0.966736   21.3437 255 255 255
 -3.08088 -0.345922     18.24 255 255 255
 2.76076 -1.06546  21.3801 255 255 255
 -2.95762 -0.119115   18.2659 255 255 255
  2.78117 -0.940977   21.8823 255 255 255
-3.50096 0.258615  18.3924 255 255 255
 0.690976 -0.143846   21.5205 255 255 255
0.155276 0.431132  21.6463 255 255 255
 8.73366 0.205546  21.4118 255 255 255
-18.579 2.25816 60.5549 255 255 255
-5.62251  4.41384  59.7666 255 255 255
8.57408 2.52029 22.1385 255 255 255
-4.53937  8.48155  45.0411 255 255 255
 8.38282 -6.78141  22.2755 255 255 255
 8.23295 -6.62549  22.3554 255 255 255
  8.8484 -4.65851  20.4923 255 255 255
 8.60478 -4.85279  21.5247 255 255 255
-2.25625 -3.47564  20.0509 255 255 255
 9.24939 -4.35497  20.1075 255 255 255
9.06276 -4.2552 20.1498 255 255 255
3.85225 -4.5351 23.9229 255 255 255
 9.47647 -3.85766  19.5855 255 255 255
 3.35055 -4.14452  24.4546 255 255 255
-2.61341 -1.51885  18.5574 255 255 255
-2.93811 -1.26155  18.4895 255 255 255
0.0349601  -1.45271   21.6294 255 255 255
 7.64946 -2.07468  24.8564 255 255 255
 0.608757 -0.288687   21.6203 255 255 255
-2.52743 0.301101  18.3806 255 255 255
-2.7651 0.34592  18.319 255 255 255
 2.56315 0.164262  20.5021 255 255 255
  6.28498 -0.015714   22.1906 255 255 255
 2.26455 0.902379  20.8161 255 255 255
8.96364 1.49623 20.5415 255 255 255
9.07966 2.18877 20.0364 255 255 255
-6.44006  6.42069  53.9184 255 255 255
-2.79318  6.74058  53.9442 255 255 255
-3.88859  7.70143  45.1224 255 255 255
7.67632 4.05375 24.1615 255 255 255
7.87156 4.69463 23.6116 255 255 255
-3.93117 -3.34772  19.8875 255 255 255
 -4.1477 -3.22155  19.5717 255 255 255
 8.94615 -4.46803  20.8169 255 255 255
 2.85831 -4.58226  23.7525 255 255 255
 9.04588 -3.98169  20.1442 255 255 255
 9.29834 -3.52874  19.7629 255 255 255
-3.33605 -1.32488  18.5615 255 255 255
-0.557244 -0.738119   21.2157 255 255 255
 0.450398 -0.459444   21.3134 255 255 255
-0.534079 -0.136086    21.172 255 255 255
 2.43255 0.714812  21.0602 255 255 255
-23.0598  5.75515  54.0202 255 255 255
 6.8899 2.07826 22.7206 255 255 255
 3.13231 -2.82868  22.3896 255 255 255
   2.932 -2.42476  22.3557 255 255 255
 -2.28472 -0.981371   18.0289 255 255 255
6.63197   -7.97 26.2955 255 255 255
  3.1522 -4.94975  23.7528 255 255 255
 3.47488 -4.55279   24.208 255 255 255
 5.27572 -2.44013  19.4406 255 255 255
  0.14223 -0.790913   21.5138 255 255 255
-1.88607 0.189043  18.7695 255 255 255
0.0709748   1.27456   20.7279 255 255 255
2.26689 1.34454 21.3154 255 255 255
  7.17419 -0.562096   23.2872 255 255 255
7.74548 3.93005 23.6668 255 255 255
 4.27279 -4.96938   24.151 255 255 255
 5.87884 -2.16989  21.6316 255 255 255
-0.117964 0.0802398   21.3635 255 255 255
8.71112 2.42568 21.1518 255 255 255
-18.0093  8.68796  48.1071 255 255 255
8.27695 3.18196 22.8636 255 255 255
 8.16607 -1.22362  22.5464 255 255 255
-9.99766  1.62124   61.517 255 255 255
-4.85563  4.34896  59.7268 255 255 255
  8.6155 -5.27186  21.6858 255 255 255
-4.96843  7.75046  44.9149 255 255 255
-3.09463 -0.35887  18.3283 255 255 255
-9.47514  2.05429  61.4104 255 255 255
-6.02853  1.84505  61.9021 255 255 255
 8.34077 -5.96667   22.423 255 255 255
 1.7418 1.12295 20.9574 255 255 255
-3.61699  15.2879  38.0258 255 255 255
 9.02657 -4.25172  20.5639 255 255 255
 2.46099 -2.41306   22.273 255 255 255
-10.8121  1.01454  62.5562 255 255 255
  -4.092 -3.36496  20.1151 255 255 255
8.20516 3.08736 22.6566 255 255 255
-4.59787  14.1554    38.27 255 255 255
 6.43042 -8.83706  26.5402 255 255 255
 7.26877 -7.68674  25.6042 255 255 255
 0.466825 0.0909888  0.238015 0 255 0
 0.92836 -6.33375 -1.27655 0 255 0
 0.113065  -10.4979 -0.410665 0 255 0
 1.35557  1.26339 0.283631 0 255 0
-7.21582 -3.94683  2.50143 0 255 0
