ply
format ascii 1.0
element vertex 108
property float x
property float y
property float z
property uchar red
property uchar green
property uchar blue
end_header
 7.99918 -4.87807  20.6702 255 255 255
 8.26229 -4.16936  18.9135 255 255 255
-4.02395 -2.26011  16.5187 255 255 255
-2.78656 -2.20609  16.4048 255 255 255
-2.11166 -1.91281  17.3099 255 255 255
-2.88105 -0.88736  16.2916 255 255 255
  -2.8036 -0.457291   16.3832 255 255 255
 7.88566 0.977239   19.694 255 255 255
 7.3532 4.35111 23.6029 255 255 255
 7.60988 -6.54799  22.1126 255 255 255
-0.834869 -0.971421   20.5251 255 255 255
7.70336  2.3755  21.959 255 255 255
7.15008 4.31416 25.2107 255 255 255
 7.81111 -5.68252  21.5926 255 255 255
  7.9759 -5.47261  19.6639 255 255 255
 1.65686 -2.71233  22.2497 255 255 255
 -1.7113 -1.06228  19.5031 255 255 255
-0.625166 -0.671702   20.4596 255 255 255
-3.75625 -1.35385  16.1412 255 255 255
  3.40762 0.0266042   18.6014 255 255 255
-1.17498  -1.2709  20.2438 255 255 255
8.01586 1.66549 19.9939 255 255 255
7.55356 4.83716 22.1097 255 255 255
-3.41635 -1.34786  16.3934 255 255 255
 1.05591 -0.56264  20.1405 255 255 255
  -3.4659 -0.980613   16.3968 255 255 255
 7.59476 -6.51253  21.5527 255 255 255
 7.78826 -6.18956   20.926 255 255 255
 7.66325 -6.11629  21.0552 255 255 255
 7.69067 -5.86997  20.7087 255 255 255
 8.08891 -5.30313  19.9644 255 255 255
 8.07217 -5.17872  20.1933 255 255 255
-4.92138 -3.99269   18.073 255 255 255
 8.03714 -4.67384  19.3578 255 255 255
 8.25737 -3.90894  18.5311 255 255 255
-2.69797 -2.92672    16.79 255 255 255
 4.32155 -3.51929  18.6808 255 255 255
-3.55971 -1.92114  16.3257 255 255 255
-2.59268 -1.96671   16.717 255 255 255
-2.32111  -1.9698  16.9299 255 255 255
-3.32883 -1.70526  16.4982 255 255 255
-1.97986 -1.58261  19.6987 255 255 255
-1.51486 -1.71004  20.4842 255 255 255
  3.4266 -1.59728  18.2776 255 255 255
-1.68826 -1.57217  20.2461 255 255 255
 -3.68921 -0.884342    16.023 255 255 255
 1.87611 -1.57502  20.5463 255 255 255
 -3.58349 -0.669421   16.0454 255 255 255
 1.90334 -1.47529   21.286 255 255 255
 -4.09603 -0.336526   16.1571 255 255 255
-0.275792 -0.700228   20.5739 255 255 255
 -0.84412 -0.133778   20.6833 255 255 255
7.73853  2.2915 21.9211 255 255 255
 7.55426 -7.03533  21.3414 255 255 255
 7.66251 -7.15402  22.1872 255 255 255
 7.95817 -4.87373  19.5648 255 255 255
 7.87619 -5.23698  21.0414 255 255 255
-3.00006 -3.99423  18.4777 255 255 255
  8.2839 -4.51482  19.0648 255 255 255
 8.10746 -4.42909  19.1124 255 255 255
 3.23036 -5.46272  24.5478 255 255 255
 8.41355 -3.96658   18.387 255 255 255
2.69871  -5.143 25.4189 255 255 255
-3.18314 -1.93741  16.1122 255 255 255
-3.56508 -1.75476  16.3872 255 255 255
-0.904764  -2.06634    20.735 255 255 255
 7.44415 -2.75692  26.4055 255 255 255
-0.357891 -0.855052   20.7168 255 255 255
 -3.20793 -0.265967   16.1749 255 255 255
 -3.42048 -0.229941   16.0874 255 255 255
  1.61598 -0.294571   19.2446 255 255 255
  5.53114 -0.409131   21.9447 255 255 255
 1.29103 0.430721  19.6371 255 255 255
8.04251 1.24617 19.9906 255 255 255
8.17904 1.96995 19.5981 255 255 255
7.17592 4.67161  24.348 255 255 255
 -4.5754 -3.87153  18.1814 255 255 255
-4.74227 -3.72017  17.7625 255 255 255
  8.109 -4.7285 20.0322 255 255 255
 2.14569 -5.51088  24.1922 255 255 255
 8.08865 -4.16377  19.1115 255 255 255
 8.26681 -3.67398  18.6205 255 255 255
-3.93754 -1.82847    16.47 255 255 255
-1.50453 -1.32871  20.0719 255 255 255
-0.502661  -1.02084   20.2674 255 255 255
 -1.49658 -0.716782   19.9774 255 255 255
 1.47028 0.243783  20.0049 255 255 255
6.11029 1.79943 22.6912 255 255 255
2.34697 -3.4758  22.101 255 255 255
2.12311 -3.0562 22.0378 255 255 255
-2.92864 -1.45023  15.8312 255 255 255
 2.47198 -5.89006  24.1935 255 255 255
  2.8342 -5.53997  24.9962 255 255 255
 4.33419 -2.73033  17.9863 255 255 255
-0.812272  -1.37822   20.5489 255 255 255
 -2.64478 -0.361913   16.6883 255 255 255
-0.914608  0.726044   19.3369 255 255 255
 1.27932 0.874083  20.3268 255 255 255
 6.62582 -1.00242   23.723 255 255 255
7.00504 3.80301 24.0913 255 255 255
   3.711 -5.95022  24.9297 255 255 255
 5.12778 -2.62804  21.1102 255 255 255
 -1.09621 -0.491727    20.273 255 255 255
7.73495 2.17043  20.528 255 255 255
7.49895 2.99376 22.9453 255 255 255
 7.56919 -1.62921  22.6076 255 255 255
-0 -0 -0 0 255 0
 0.578493  0.811973 0.0777568 0 255 0
